ply
format ascii 1.0
element vertex 715
property float x
property float y
property float z
property uchar red
property uchar green
property uchar blue
property float nx
property float ny
property float nz
end_header
0.078929 0.124877 0.485572 233 127 21 0.434238 -0.150379 0.888158
0.112715 0.032500 0.408312 155 127 99 -0.039839 0.921639 0.385998
-0.087586 -0.008515 0.617690 120 127 134 0.685127 0.519930 0.510171
0.053297 -0.137944 0.473633 10 127 244 0.206179 -0.083960 0.974906
-0.004549 0.057116 0.361760 176 127 78 0.864599 0.474653 0.164840
-0.132998 -0.063791 0.529642 73 127 181 -0.328081 0.884568 0.331515
-0.103898 -0.103349 0.534561 39 127 215 0.408297 -0.115882 0.905464
-0.002483 0.002885 0.348002 129 127 125 0.882145 0.470216 0.026798
-0.060703 -0.063046 0.625273 73 127 181 0.679297 0.471417 0.562424
0.055098 -0.069376 0.380355 68 127 186 0.678600 0.725556 -0.114327
0.116437 -0.043617 0.417920 90 127 164 0.554427 -0.066328 0.829585
-0.127707 0.071897 0.466896 188 127 66 -0.314512 -0.092113 0.944774
-0.043224 0.141917 0.467684 248 127 6 0.769210 0.337456 0.542624
0.021759 -0.145797 0.485127 3 127 251 0.806313 0.140335 -0.574600
-0.053202 0.017695 0.637654 142 127 112 0.455640 0.888619 0.052434
-0.007987 0.007993 0.650725 134 127 120 0.637282 0.770123 0.027946
-0.067587 -0.024292 0.370823 106 127 148 0.894232 -0.153489 -0.420464
-0.134019 0.065140 0.505243 182 127 72 0.397194 0.889785 -0.224766
0.128703 0.053668 0.554181 173 127 81 -0.501730 0.614626 0.608689
0.045791 -0.016703 0.641954 113 127 141 0.374608 0.927146 -0.008272
0.008570 -0.113623 0.399971 30 127 224 0.600043 -0.501279 0.623432
-0.046140 0.142213 0.495025 248 127 6 0.702395 0.272918 0.657386
-0.141529 -0.044563 0.515456 89 127 165 -0.094955 0.565179 0.819485
-0.097173 0.062627 0.600442 180 127 74 0.781586 0.211310 0.586917
-0.033839 -0.097947 0.392838 44 127 210 0.907724 -0.407843 0.098491
0.107667 -0.097205 0.463589 44 127 210 0.693390 0.711623 0.113151
0.026308 -0.076901 0.374640 62 127 192 0.946828 0.321698 0.005156
-0.038038 -0.127355 0.568640 19 127 235 -0.018088 0.484777 0.874451
0.135602 -0.063694 0.515040 73 127 181 -0.115420 -0.006845 0.993293
0.129919 0.070375 0.511053 187 127 67 -0.464461 0.885580 -0.004902
0.086292 0.103591 0.564268 215 127 39 -0.149694 -0.414166 0.897807
0.131777 0.062349 0.537032 180 127 74 -0.494230 0.640961 0.587287
-0.117537 0.086683 0.470419 201 127 53 0.514041 0.819751 0.252528
-0.056661 -0.099704 0.597987 42 127 212 0.836730 -0.025254 0.547033
0.091070 -0.033111 0.385976 99 127 155 0.595240 -0.501847 0.627566
0.132188 -0.045154 0.445164 89 127 165 0.391658 0.888238 0.240076
0.068409 -0.102764 0.414386 40 127 214 0.860694 0.137069 0.490324
0.143342 -0.015174 0.536072 114 127 140 0.199239 0.894122 -0.401062
0.140282 0.041280 0.460403 162 127 92 0.098314 0.402831 0.909979
0.005986 0.134522 0.565149 241 127 13 0.804740 -0.305732 0.508843
0.007063 -0.083831 0.624050 56 127 198 0.818826 0.466659 0.334296
0.015333 0.052312 0.359057 171 127 83 0.568631 0.757190 0.321439
-0.083150 -0.123236 0.472442 22 127 232 0.487487 -0.495763 0.718732
0.122430 -0.063611 0.437484 73 127 181 0.552978 0.571809 0.606011
0.016898 0.059412 0.637148 178 127 76 0.508293 0.791592 -0.339147
-0.120444 0.052387 0.428254 172 127 82 -0.456167 0.104756 0.883707
-0.072743 -0.112216 0.565479 32 127 222 -0.580526 0.657563 0.480208
-0.005985 0.127625 0.577065 235 127 19 0.935028 0.225600 -0.273547
0.034856 -0.139132 0.552763 9 127 245 0.962253 0.184766 -0.199826
0.119517 -0.058834 0.430481 77 127 177 0.223118 -0.571470 0.789709
-0.031592 -0.038022 0.358159 95 127 159 0.491876 0.784007 -0.378670
0.059091 0.115002 0.425870 225 127 29 0.401610 0.354451 0.844437
0.065913 -0.132325 0.521697 15 127 239 0.676621 0.435016 0.594092
0.104180 0.084573 0.432773 199 127 55 0.622126 -0.231140 0.748019
0.122024 -0.071109 0.443786 67 127 187 0.276256 -0.216313 0.936425
-0.145697 0.025512 0.513363 149 127 105 0.069117 -0.182286 0.980813
-0.126843 0.064339 0.539976 182 127 72 0.394251 0.901845 -0.176751
0.007866 -0.087461 0.619826 53 127 201 0.975230 0.182490 0.124995
-0.133975 -0.054862 0.456363 80 127 174 -0.245967 0.941714 -0.229509
0.032363 -0.139549 0.461747 8 127 246 0.829748 0.018818 0.557820
0.125077 -0.083167 0.504127 56 127 198 0.145226 0.268033 0.952401
0.103204 0.026262 0.605661 149 127 105 0.521926 0.559757 -0.643635
-0.005608 -0.123359 0.416510 22 127 232 0.361220 -0.550472 0.752663
-0.108779 -0.045319 0.411514 88 127 166 -0.381333 0.924345 -0.013117
0.102433 -0.056245 0.405069 79 127 175 0.501157 0.864906 0.027910
0.003550 0.057682 0.638408 176 127 78 0.999297 -0.002164 -0.037438
-0.074836 0.127566 0.476469 235 127 19 0.008785 0.188952 0.981947
0.006232 0.111722 0.397402 222 127 32 0.526653 0.572606 0.628299
0.035992 0.095075 0.612829 208 127 46 0.965556 0.003016 -0.260178
-0.004510 0.144325 0.543150 250 127 4 0.781728 -0.158782 0.603067
0.041318 0.104464 0.604493 216 127 38 0.308761 0.616348 -0.724418
0.050321 0.082452 0.382377 197 127 57 0.556644 0.564270 0.609710
0.070328 0.086086 0.399895 200 127 54 0.665029 0.254867 0.701983
0.109942 -0.099286 0.513505 43 127 211 0.614958 0.741889 0.267259
-0.129264 0.069368 0.470585 186 127 68 0.474236 0.879561 0.038366
-0.130925 0.014741 0.570582 140 127 114 0.004638 0.972197 -0.234118
0.043109 0.135029 0.448716 242 127 12 0.077998 0.329307 0.940996
-0.036346 0.143013 0.524952 249 127 5 0.961385 0.257334 -0.097559
-0.006699 -0.090279 0.379801 50 127 204 0.750200 -0.553112 0.362308
0.102911 0.076822 0.577329 192 127 62 -0.738433 0.465805 0.487588
0.066485 0.074788 0.390881 191 127 63 0.668705 0.368708 0.645668
0.050685 0.141474 0.525058 247 127 7 0.565446 -0.330827 0.755529
0.146573 0.027511 0.496965 150 127 104 -0.226500 0.925519 0.303499
0.005799 0.078119 0.626976 193 127 61 0.988957 0.074106 -0.128346
-0.129624 -0.057096 0.461385 78 127 176 -0.510164 0.565507 0.648024
-0.034263 0.112722 0.406647 223 127 31 -0.086705 0.608154 0.789070
0.085445 0.117288 0.532345 227 127 27 0.154687 -0.375240 0.913929
-0.029027 0.098478 0.609788 211 127 43 0.700170 -0.415586 0.580560
0.142054 0.035370 0.534839 157 127 97 -0.331307 0.849408 0.410782
-0.099049 -0.076919 0.578329 62 127 192 0.733160 -0.399157 0.550591
-0.059302 0.002549 0.636846 129 127 125 0.855306 -0.347513 0.384301
0.111345 0.079463 0.429743 195 127 59 0.470385 0.000757 0.882461
0.053146 -0.140952 0.507496 7 127 247 0.142215 0.121982 0.982291
-0.042751 0.013264 0.642534 138 127 116 0.146643 0.989189 -0.000691
0.003888 -0.147550 0.473528 2 127 252 0.506430 -0.129155 0.852554
0.033588 -0.116559 0.413947 28 127 226 0.704911 -0.302027 0.641779
0.105994 0.043592 0.596083 164 127 90 -0.646636 0.614849 0.451467
-0.052926 -0.141275 0.494227 7 127 247 0.046404 -0.070658 0.996421
0.138594 0.007269 0.442899 133 127 121 0.369902 -0.260668 0.891754
0.132081 0.071694 0.516869 188 127 66 -0.442715 0.701573 0.558389
0.134833 0.023411 0.443554 147 127 107 0.383379 -0.439038 0.812568
-0.005052 0.146243 0.465413 251 127 3 0.066324 0.233989 0.969974
0.047953 0.129575 0.441099 237 127 17 0.947242 -0.210396 0.241799
-0.126896 -0.078468 0.516096 60 127 194 -0.375223 0.714835 0.590101
0.038925 -0.032854 0.639467 99 127 155 0.482729 0.875207 0.031397
-0.104651 0.100780 0.543226 213 127 41 0.683518 0.526160 0.505924
0.150507 -0.013791 0.496931 115 127 139 0.009193 -0.175646 0.984411
-0.028554 -0.143945 0.535261 5 127 249 0.936704 -0.102312 0.334839
0.135843 -0.060536 0.484344 76 127 178 0.153932 0.101227 0.982882
-0.079674 0.119409 0.461745 228 127 26 0.708816 0.245313 -0.661364
-0.121067 -0.015482 0.590227 114 127 140 0.046632 0.971212 0.233608
0.067149 -0.127792 0.464761 18 127 236 0.299147 -0.085157 0.950400
-0.034400 0.081565 0.378332 196 127 58 -0.593793 0.579505 0.558197
-0.002834 -0.148042 0.522270 1 127 253 0.970776 0.018155 0.239299
0.081169 0.050545 0.388074 170 127 84 0.758389 0.182404 0.625760
-0.073356 0.111049 0.571647 221 127 33 0.465749 -0.258076 0.846448
0.072358 0.122785 0.551649 231 127 23 0.729791 -0.603178 0.321840
0.074348 -0.072758 0.389567 65 127 189 0.882577 0.340470 0.324249
0.074785 -0.037407 0.624096 95 127 159 -0.302530 0.809792 0.502705
0.009957 0.004878 0.351253 131 127 123 0.464349 0.884014 0.053845
0.085560 -0.080259 0.592563 59 127 195 -0.048236 0.721331 0.690909
0.022869 -0.069022 0.372233 68 127 186 0.976924 -0.062923 0.204110
-0.012169 -0.089255 0.616506 51 127 203 0.979639 0.146993 0.136753
0.040666 0.121653 0.582404 230 127 24 0.811139 -0.513027 0.280815
-0.004202 0.053831 0.358700 173 127 81 0.117462 0.920447 0.372800
-0.113988 0.036359 0.590523 158 127 96 0.019910 0.934454 -0.355526
0.055378 -0.045553 0.367912 88 127 166 0.835867 -0.320323 0.445779
0.144046 -0.033692 0.512592 98 127 156 -0.078942 0.152704 0.985114
0.007758 -0.131613 0.571501 15 127 239 0.991847 0.005056 -0.127338
-0.005085 -0.144453 0.532150 4 127 250 -0.164251 0.247887 0.954764
-0.039795 -0.023606 0.640870 107 127 147 -0.036427 0.982712 0.181521
-0.027115 0.065716 0.368748 183 127 71 0.145040 0.889779 0.432732
-0.056497 -0.140695 0.517616 7 127 247 0.165558 0.056392 0.984586
-0.015402 -0.124964 0.584315 21 127 233 0.609416 0.407443 0.680148
-0.019902 -0.137221 0.442608 10 127 244 0.234177 -0.421689 0.875979
-0.080529 0.088588 0.407869 202 127 52 0.686887 0.724654 0.055347
0.136777 0.045759 0.455822 166 127 88 0.086995 0.510766 0.855307
0.149092 0.008683 0.493201 134 127 120 0.054041 0.120519 0.991239
-0.062865 -0.033912 0.367399 98 127 156 -0.046593 0.983286 -0.176005
0.072672 -0.053983 0.617292 81 127 173 0.722839 0.672041 -0.160828
-0.107188 -0.072664 0.575653 65 127 189 0.547736 -0.028538 0.836164
-0.024649 -0.015304 0.647422 114 127 140 0.879995 0.419556 0.222667
-0.132568 0.017287 0.562966 142 127 112 -0.027518 0.924999 -0.378971
-0.131188 0.067593 0.488147 184 127 70 -0.129180 -0.002471 0.991618
0.065004 -0.115835 0.432559 29 127 225 0.406170 -0.217601 0.887511
0.118985 0.069811 0.440317 186 127 68 0.595755 -0.610425 0.521975
-0.108159 0.072278 0.426116 188 127 66 0.651592 0.712253 -0.261004
-0.003608 0.096235 0.385485 209 127 45 0.385364 0.724645 0.571300
0.005453 -0.049543 0.638867 85 127 169 0.815997 0.553534 0.166577
-0.073412 0.128287 0.515512 236 127 18 0.724045 0.386537 0.571269
-0.069376 0.128698 0.526482 236 127 18 0.805445 0.370751 0.462387
-0.014530 0.069116 0.370089 186 127 68 0.993668 0.105168 -0.039532
0.102841 -0.090703 0.438611 50 127 204 0.646567 0.205093 0.734771
0.014318 0.112320 0.398478 222 127 32 0.552576 0.520743 0.650758
-0.006622 -0.050418 0.643601 84 127 170 0.989096 0.119883 0.085545
-0.031489 0.060864 0.635551 179 127 75 0.943326 0.205567 0.260537
-0.101720 -0.080731 0.425761 58 127 196 -0.744933 0.495323 0.446912
0.102478 0.094812 0.443906 208 127 46 0.500245 -0.070199 0.863033
-0.084480 0.035449 0.382825 157 127 97 0.179626 0.965402 0.189031
-0.124219 -0.080977 0.523678 58 127 196 -0.391168 0.762651 0.515122
0.088503 -0.116361 0.538030 28 127 226 0.591868 0.615740 0.520151
-0.129640 0.015632 0.574970 140 127 114 0.368278 0.840399 0.397618
0.000971 -0.152124 0.503404 255 127 0 0.670214 0.006504 0.742139
-0.099394 0.026381 0.607673 149 127 105 0.724299 -0.002951 0.689480
-0.062392 0.134209 0.534178 241 127 13 0.880073 0.355166 0.315164
0.032231 -0.094622 0.387017 47 127 207 0.277602 0.756573 -0.592060
-0.017233 -0.073353 0.631260 65 127 189 0.552194 0.705674 0.443967
0.096122 -0.104208 0.455745 38 127 216 0.228638 -0.179868 0.956751
0.053421 0.140261 0.474520 246 127 8 0.828744 -0.204856 0.520785
-0.046958 -0.128749 0.444179 18 127 236 -0.079446 -0.364149 0.927946
-0.056198 0.106870 0.587251 218 127 36 0.590951 -0.322808 0.739305
-0.093486 -0.112236 0.465610 32 127 222 0.177920 -0.464151 0.867703
0.140170 -0.046873 0.530911 87 127 167 0.265008 0.948858 0.171577
0.049572 -0.118691 0.425810 26 127 228 0.880035 0.138287 0.454330
0.002992 -0.044452 0.355059 89 127 165 0.993195 0.113395 0.026546
-0.026790 -0.117341 0.588451 27 127 227 0.777281 0.264150 0.571015
0.038682 0.144911 0.500654 250 127 4 0.914521 -0.245203 0.321755
-0.045599 -0.139643 0.477740 8 127 246 -0.710934 0.133533 0.690465
-0.055949 0.075409 0.616246 191 127 63 0.632467 -0.453418 0.628011
-0.074474 0.122436 0.541431 231 127 23 0.037217 -0.301641 0.952695
-0.004466 0.125113 0.417449 233 127 21 0.449724 0.493988 0.744126
-0.006199 0.151016 0.503280 255 127 0 0.263731 0.022033 0.964345
-0.029711 -0.144682 0.483715 4 127 250 0.381896 -0.200975 0.902089
0.009913 -0.017155 0.646992 112 127 142 0.872416 0.485374 0.057464
-0.109497 0.016850 0.400004 141 127 113 0.439258 0.819431 -0.368219
-0.094677 0.108606 0.544873 219 127 35 0.376532 -0.032288 0.925841
-0.117438 0.077934 0.454735 193 127 61 0.643204 0.563617 -0.518290
-0.148300 -0.004500 0.515227 123 127 131 0.112108 0.029164 0.993268
0.011210 0.037317 0.644957 159 127 95 0.173399 0.949191 -0.262619
0.095240 0.038094 0.391835 159 127 95 -0.289699 0.949092 0.123691
-0.131029 0.014723 0.428712 140 127 114 -0.365003 0.497205 0.787121
0.086060 -0.112050 0.447004 32 127 222 0.831325 0.512574 0.214863
0.047216 -0.097935 0.603175 44 127 210 0.629781 0.681470 0.372793
-0.023445 -0.143670 0.465395 5 127 249 -0.139668 -0.215811 0.966395
0.135488 0.045662 0.542718 166 127 88 -0.259306 0.957225 -0.128380
-0.023987 -0.137504 0.444246 10 127 244 0.956216 -0.233396 0.176571
0.060760 0.119022 0.433819 228 127 26 -0.544787 0.617715 0.567129
0.002957 -0.054139 0.638273 81 127 173 -0.054771 0.934716 0.351151
-0.146995 -0.031865 0.515284 100 127 154 -0.160842 0.821388 0.547221
0.017627 0.140494 0.449408 246 127 8 0.996685 0.010917 0.080627
-0.040784 0.058872 0.365992 177 127 77 -0.695736 0.576719 0.428191
-0.015147 0.098523 0.609172 211 127 43 0.976427 0.213016 -0.034852
0.133660 -0.054137 0.545408 73 108 142 -0.214453 0.253958 0.943141
-0.085941 0.004968 0.621699 131 127 123 0.124238 0.989619 0.072243
0.016144 0.081720 0.373736 196 127 58 0.874911 0.334364 0.350331
0.020225 0.054462 0.640762 173 127 81 0.733791 0.612883 -0.293132
-0.068035 -0.109943 0.575206 34 127 220 0.886919 -0.408124 0.216356
-0.013353 0.145792 0.466465 251 127 3 -0.132037 0.207820 0.969215
0.089264 -0.109027 0.549988 34 127 220 0.811235 0.551471 -0.194366
-0.129816 -0.068671 0.477418 69 127 185 0.035795 -0.395484 0.917775
-0.014508 0.138042 0.552690 244 127 10 0.904584 -0.037728 0.424622
-0.124718 -0.064900 0.448311 72 127 182 -0.354532 -0.082645 0.931384
0.074887 -0.004136 0.367864 123 127 131 0.143669 0.988761 0.041374
-0.108348 -0.013916 0.602902 115 127 139 0.138716 0.956548 0.256464
0.042672 0.133977 0.553135 241 127 13 0.584966 -0.448250 0.675934
0.036835 0.075580 0.624626 191 127 63 0.964786 -0.113204 -0.237429
0.037019 0.117094 0.412695 227 127 27 -0.564531 0.640600 0.520515
0.036812 0.037981 0.357032 159 127 95 0.957668 -0.232049 0.170371
-0.146373 -0.035248 0.506541 97 127 157 -0.231085 0.931963 -0.279365
-0.024852 0.086710 0.382755 201 127 53 0.041132 0.795292 0.604829
0.015235 0.093671 0.616091 207 127 47 0.994737 -0.058718 -0.083968
0.017351 0.045178 0.357536 165 127 89 0.124459 0.939806 0.318236
-0.041760 0.062995 0.368330 181 127 73 0.126102 0.912571 0.388989
-0.014471 0.140701 0.555081 247 127 7 0.839141 -0.096079 0.535362
-0.041319 0.140100 0.537041 246 127 8 0.960858 0.275371 -0.030369
0.068582 0.035655 0.627674 157 127 97 -0.599255 0.791931 0.117212
0.112233 0.011184 0.397794 137 127 117 0.618752 -0.427180 0.659290
-0.067891 -0.064942 0.616272 72 127 182 -0.079813 0.894717 0.439445
0.029774 0.096768 0.608445 209 127 45 0.922977 0.162369 -0.348928
-0.101682 -0.035074 0.605799 97 127 157 0.525268 0.512047 0.679633
-0.053637 -0.135486 0.464053 12 127 242 -0.090762 -0.260830 0.961109
-0.003605 -0.141118 0.551432 7 127 247 0.979841 0.055287 0.191976
-0.007351 0.149169 0.514671 254 127 0 0.010340 -0.098487 0.995085
0.026695 0.071403 0.368727 188 127 66 0.860237 0.325902 0.392148
0.099969 0.017265 0.606846 142 127 112 -0.097558 0.994745 -0.031047
0.055162 0.076814 0.385896 192 127 62 0.473024 0.622974 0.623019
-0.142620 -0.009523 0.549780 119 127 135 -0.042959 0.997857 0.049355
-0.094424 -0.102713 0.452494 40 127 214 0.736203 -0.674680 0.053031
0.013734 0.145931 0.534089 251 127 3 0.406183 -0.248072 0.879475
0.065912 0.100096 0.593617 212 127 42 0.793755 -0.603527 0.075562
0.065155 0.131357 0.540811 239 127 15 -0.316618 -0.138438 0.938397
-0.024761 0.143351 0.465237 249 127 5 0.987490 0.153777 -0.034861
0.043006 0.079430 0.618023 195 127 59 -0.220325 0.857039 -0.465768
0.088587 -0.118924 0.503768 26 127 228 0.816763 0.576806 0.013900
-0.134739 0.037128 0.447278 159 127 95 0.360348 0.754492 -0.548536
-0.028424 -0.088886 0.614997 51 127 203 0.144615 0.774441 0.615896
0.046428 -0.140607 0.472848 7 127 247 0.420056 -0.013073 0.907404
-0.102393 -0.081884 0.571189 57 127 197 0.723789 -0.364399 0.585955
-0.025109 -0.084927 0.378390 55 127 199 0.727157 0.496184 -0.474388
0.091995 -0.122231 0.505763 23 127 231 0.859089 0.474926 0.190820
-0.042433 0.015646 0.357086 140 127 114 0.018375 0.997051 0.074509
0.092468 -0.013773 0.616663 115 127 139 -0.682317 0.444257 0.580586
-0.045203 0.006344 0.642415 132 127 122 0.427552 0.901051 0.072851
-0.133493 -0.016111 0.571900 113 127 141 0.104683 0.888892 0.445997
-0.030233 -0.089480 0.384755 51 127 203 0.907382 0.277461 -0.315710
0.128513 0.021699 0.568773 145 127 109 -0.468037 0.216552 0.856765
0.127196 -0.033474 0.431335 99 127 155 0.341880 0.841690 0.417943
0.101810 0.102125 0.544298 214 127 40 -0.383471 0.014844 0.923433
-0.096160 0.078156 0.415831 193 127 61 -0.325112 0.476289 0.816977
-0.107264 0.105325 0.507313 217 127 37 0.310920 0.220698 0.924457
-0.065962 0.133909 0.523515 241 127 13 0.726917 0.300724 0.617379
-0.052900 0.137720 0.473684 244 127 10 -0.493182 -0.043351 0.868846
0.093925 -0.090613 0.425611 50 127 204 0.486104 -0.196085 0.851618
0.063940 0.122467 0.437929 231 127 23 0.545678 0.193034 0.815459
0.139427 -0.043883 0.485917 90 127 164 -0.071468 -0.329059 0.941601
0.086508 -0.024091 0.381712 107 127 147 0.803873 0.381140 0.456640
0.073015 0.072603 0.392740 189 127 65 0.761300 0.151799 0.630381
-0.108643 -0.088453 0.446343 52 127 202 -0.377549 -0.060361 0.924020
-0.076009 0.127139 0.496639 235 127 19 0.864280 0.499365 0.060455
-0.083747 -0.016005 0.378236 113 127 141 0.748060 0.369191 -0.551457
-0.005845 0.063916 0.364635 181 127 73 0.700314 0.665850 0.257302
0.074780 0.072042 0.611382 188 127 66 -0.600722 0.796584 0.067732
0.063841 0.130694 0.455486 238 127 16 0.800910 -0.214233 0.559149
-0.127587 -0.005319 0.422133 122 127 132 0.347979 0.762603 -0.545296
0.138337 -0.035425 0.455212 97 127 157 0.143341 -0.601664 0.785783
0.053696 -0.005872 0.640219 122 127 132 0.369420 0.925822 -0.079890
0.105776 0.035509 0.404001 157 127 97 0.558676 0.324116 0.763433
0.024329 -0.064496 0.365536 72 127 182 0.970248 -0.073485 0.230693
-0.030728 -0.142262 0.459771 6 127 248 0.824883 -0.340135 0.451526
-0.140606 -0.025505 0.546264 105 127 149 0.200479 0.467590 0.860911
0.132711 0.017404 0.432399 142 127 112 -0.143617 0.989350 0.023698
0.102925 0.080311 0.419518 195 127 59 0.263919 0.488069 0.831947
0.148400 -0.004648 0.515473 123 127 131 -0.083375 0.371620 0.924634
-0.101820 0.101094 0.467237 213 127 41 -0.195680 0.170075 0.965807
0.097352 0.074339 0.412952 190 127 64 0.337018 0.505772 0.794112
-0.053682 0.084670 0.387804 199 127 55 0.680354 0.695745 0.230340
-0.023146 -0.043905 0.641907 90 127 164 0.036463 0.959150 0.280539
-0.032362 0.146545 0.508082 252 127 2 0.952315 0.243046 -0.184456
0.014917 0.078361 0.628825 194 127 60 0.218187 0.803213 -0.554296
0.015324 -0.137971 0.442725 10 127 244 0.995255 0.097146 0.005520
0.116875 0.048097 0.579428 168 127 86 -0.312736 0.940169 -0.135200
-0.045828 -0.137477 0.535998 10 127 244 0.922728 -0.211566 0.322200
-0.081759 0.037033 0.620538 158 127 96 0.593006 0.781333 0.194586
-0.049422 -0.014815 0.361093 114 127 140 0.076876 0.970614 -0.228032
-0.053640 -0.070585 0.379894 67 127 187 -0.469628 0.839206 -0.274193
-0.053326 0.024895 0.640133 148 127 106 -0.359146 0.899741 -0.247953
0.016207 0.100778 0.612068 213 127 41 0.985540 -0.169432 -0.002133
-0.071819 0.098447 0.412724 211 127 43 0.260253 0.739384 0.620951
-0.114612 0.080241 0.560757 195 127 59 0.554177 0.139556 0.820617
-0.052632 0.042949 0.632718 164 127 90 0.684457 -0.590073 0.428173
0.006992 -0.056673 0.359557 79 127 175 0.965393 0.253307 -0.062061
-0.098182 -0.069190 0.411022 68 127 186 -0.489510 0.862457 -0.128643
-0.016321 0.150623 0.513800 255 127 0 0.563496 -0.031142 0.825532
-0.042463 -0.144820 0.506177 4 127 250 -0.566908 0.175976 0.804766
0.116940 -0.088230 0.470859 52 127 202 0.468149 0.754109 -0.460605
-0.043557 0.143076 0.486340 249 127 5 0.781536 0.198538 -0.591425
0.133714 -0.011887 0.435217 117 127 137 0.454032 -0.139013 0.880074
-0.062639 0.112718 0.575641 223 127 31 0.157732 -0.523835 0.837089
-0.003222 0.103831 0.392068 215 127 39 0.873396 -0.338768 -0.349878
0.124136 0.084261 0.487530 199 127 55 0.179761 -0.078339 0.980586
-0.084675 -0.070082 0.603107 67 127 187 0.750683 0.132604 0.647217
0.132916 -0.065409 0.476128 71 127 183 0.022601 -0.281893 0.959180
-0.006725 -0.010752 0.349928 118 127 136 -0.038679 0.994776 -0.094468
-0.088745 -0.119237 0.516434 26 127 228 -0.078324 0.170665 0.982211
0.022815 -0.140018 0.548982 8 127 246 0.981531 0.089524 -0.169061
-0.121103 -0.057065 0.570140 78 127 176 0.154936 0.646022 0.747430
0.026357 0.026263 0.354656 149 127 105 0.404236 0.875274 0.265496
0.105079 -0.106704 0.506641 36 127 218 0.642128 0.739514 0.201969
-0.095391 -0.073823 0.592619 64 127 190 0.669033 0.070923 0.739841
0.086113 0.097552 0.574832 210 127 44 -0.327673 -0.391651 0.859791
0.071172 -0.056293 0.377314 79 127 175 0.890386 -0.144776 0.431570
0.120799 0.066389 0.563907 183 127 71 -0.131901 -0.506840 0.851889
-0.099461 -0.099084 0.443798 43 127 211 -0.747899 0.501588 0.434806
-0.063589 0.068683 0.383986 185 127 69 0.320470 0.890985 0.321628
-0.097892 -0.111120 0.483772 33 127 221 0.533850 -0.576623 0.618474
-0.080307 0.061129 0.389805 179 127 75 0.777924 0.570870 -0.262570
-0.090649 0.018355 0.621698 143 127 111 0.607822 -0.555984 0.566952
0.130038 -0.075973 0.507111 62 127 192 0.264088 0.516503 0.814544
0.003657 0.142222 0.551503 248 127 6 0.919766 0.128410 -0.370866
0.132515 0.054548 0.544935 173 127 81 -0.439500 0.842449 0.311641
-0.038638 0.126113 0.572067 234 127 20 0.573727 -0.262293 0.775912
0.082189 0.094319 0.416885 207 127 47 -0.240309 0.734615 0.634501
0.138092 -0.026881 0.451770 104 127 150 0.083355 0.960622 -0.265062
-0.074335 -0.046413 0.622037 88 127 166 -0.172189 0.910496 0.375963
-0.043274 -0.140131 0.532058 8 127 246 0.852623 -0.148550 0.500966
-0.098253 -0.064066 0.406879 73 127 181 -0.697042 0.643787 0.315707
-0.104662 0.082555 0.429680 197 127 57 0.431011 0.814196 0.388991
-0.098855 0.068101 0.411010 185 127 69 0.039562 0.803363 0.594174
0.019309 -0.026479 0.351467 104 127 150 0.910676 0.411917 -0.031527
0.075910 -0.014479 0.627040 115 127 139 -0.331221 0.901777 0.277654
-0.122606 -0.080848 0.475035 58 127 196 -0.392925 0.267388 0.879838
-0.129340 -0.018524 0.427835 111 127 143 -0.347343 0.812684 0.467865
0.063952 0.003316 0.635776 130 127 124 0.220246 0.964215 -0.147586
-0.043652 -0.024677 0.358962 106 127 148 0.944196 0.089389 -0.317023
0.077485 -0.119614 0.541295 25 127 229 0.344485 0.484868 0.803886
0.088758 0.085637 0.416518 200 127 54 0.621564 0.210128 0.754655
0.075481 -0.130617 0.511870 16 127 238 -0.368970 -0.089208 0.925150
0.082055 -0.110357 0.558588 33 127 221 0.806418 0.321710 -0.496178
0.140358 -0.042059 0.458119 91 127 163 0.183600 0.927718 -0.325008
-0.118704 -0.088667 0.518671 52 127 202 0.484020 -0.439901 0.756446
-0.026127 0.005452 0.349824 132 127 122 0.953972 -0.220780 -0.202963
-0.135002 0.014066 0.435752 139 127 115 -0.404088 0.187228 0.895354
-0.073185 0.131881 0.493830 239 127 15 0.569226 0.345638 0.746000
0.117737 -0.069942 0.559406 68 127 186 0.403686 0.862413 0.305420
0.115956 0.079048 0.450799 194 127 60 -0.045605 0.550488 0.833597
-0.025617 -0.069451 0.628572 68 127 186 0.863244 0.328586 0.383199
0.004872 -0.055144 0.640784 80 127 174 -0.057476 0.934734 0.350668
0.064419 0.103175 0.587238 215 127 39 0.809173 -0.587290 0.018159
-0.078292 -0.098792 0.418464 43 127 211 0.745192 -0.666823 0.005988
0.061862 0.094482 0.397553 207 127 47 0.084517 0.702966 0.706184
-0.003150 0.151123 0.511496 255 127 0 -0.089203 -0.061753 0.994097
0.005518 0.133285 0.571037 240 127 14 0.998878 -0.017212 -0.044125
-0.058807 -0.075593 0.614720 63 127 191 -0.216540 0.871047 0.440894
0.122458 0.090871 0.495698 204 127 50 -0.229791 0.414562 0.880531
-0.006821 0.147773 0.484203 253 127 1 0.171648 0.100747 0.979993
-0.074836 -0.007695 0.630405 120 127 134 0.487113 0.807910 0.331666
0.121119 -0.001512 0.407837 126 127 128 0.589801 0.161268 0.791282
-0.057101 -0.047563 0.628950 87 127 167 0.915870 -0.233487 0.326598
0.121009 -0.092960 0.494913 48 127 206 0.539455 0.718324 0.439316
0.036497 0.143499 0.466478 249 127 5 0.460411 0.067730 0.885118
-0.141381 0.044585 0.525905 165 127 89 0.038711 -0.230005 0.972419
-0.005122 0.121482 0.409913 230 127 24 0.402044 0.546940 0.734314
-0.064434 0.054107 0.623761 173 127 81 0.451992 0.871398 -0.190709
0.013938 -0.044204 0.642397 89 127 165 0.945313 0.315773 0.081675
0.064503 -0.133165 0.476725 14 127 240 0.890585 0.448501 -0.075535
-0.140549 0.033441 0.544003 155 127 99 0.122074 0.959786 -0.252803
-0.003750 -0.140828 0.445039 7 127 247 0.915785 -0.149623 0.372760
0.043678 0.113644 0.409027 224 127 30 0.782243 0.206922 0.587605
0.121888 -0.081852 0.458765 57 127 197 0.452980 0.837740 -0.304961
0.026532 0.054801 0.637784 174 127 80 0.956921 -0.273775 -0.096697
-0.103467 0.045534 0.403426 166 127 88 0.654823 0.636064 -0.408204
0.077283 -0.123153 0.544732 22 127 232 0.453822 0.515642 0.726746
0.039474 -0.145250 0.483415 4 127 250 -0.121784 -0.121058 0.985147
-0.025138 0.138832 0.454372 245 127 9 0.060685 0.310656 0.948583
-0.077943 0.055905 0.384332 175 127 79 0.519741 0.852970 0.048086
-0.047963 -0.113501 0.415871 31 127 223 0.472725 -0.646044 0.599299
-0.086282 -0.083226 0.407610 56 127 198 0.037447 0.723419 -0.689393
-0.107706 0.008174 0.599863 134 127 120 -0.085761 0.978837 -0.185805
-0.033707 -0.139585 0.456022 8 127 246 0.419000 -0.390329 0.819806
-0.145101 0.018213 0.520705 142 127 112 0.236108 0.194820 0.951997
-0.085374 0.071149 0.397544 187 127 67 0.314027 0.883889 0.346594
-0.151782 0.009377 0.503154 135 127 119 0.021901 0.886710 -0.461808
-0.120746 0.021219 0.585005 145 127 109 0.531100 0.643382 0.551355
-0.119101 -0.025873 0.585927 105 127 149 -0.338643 0.927523 -0.158182
0.043683 -0.130725 0.437793 16 127 238 0.158697 -0.354454 0.921508
0.016296 -0.124220 0.582653 21 127 233 0.921489 0.266534 0.282520
-0.110143 0.090963 0.541826 204 127 50 0.323240 0.036639 0.945608
-0.017217 0.064920 0.635467 182 127 72 0.567055 -0.717576 0.404393
0.151206 0.012633 0.484248 138 127 116 -0.024175 0.894000 0.447415
-0.090158 -0.079676 0.407373 59 127 195 0.379860 0.467128 -0.798435
0.092485 -0.052961 0.604226 82 127 172 -0.253057 0.781628 0.570104
0.069108 0.108517 0.425715 219 127 35 0.090255 0.544168 0.834107
-0.105552 -0.103494 0.522964 39 127 215 0.597763 -0.496953 0.629060
0.055439 0.137588 0.495749 244 127 10 0.457507 -0.187961 0.869113
-0.015192 -0.110939 0.399439 33 127 221 0.855045 -0.397983 0.332427
-0.073213 0.082899 0.397852 197 127 57 0.157001 0.824433 0.543747
-0.004413 0.092132 0.620192 205 127 49 0.928062 -0.270661 0.255818
-0.068234 -0.128666 0.479788 18 127 236 0.634184 -0.428756 0.643412
-0.072022 -0.026901 0.629054 104 127 150 0.623108 0.659961 0.419748
0.150002 -0.013811 0.479914 115 127 139 0.117689 0.112106 0.986702
0.101772 0.091695 0.561733 205 127 49 0.386557 -0.780144 0.491883
0.036699 0.086335 0.616395 200 127 54 0.964563 -0.243447 -0.101748
-0.124590 -0.033847 0.575563 98 127 156 0.561767 -0.315144 0.764919
-0.022119 -0.096178 0.609056 45 127 209 0.200270 0.719654 0.664824
0.148125 -0.015383 0.496401 114 127 140 -0.019646 -0.501301 0.865050
-0.018932 -0.144775 0.459104 4 127 250 0.822808 0.065504 -0.564532
-0.104572 0.046039 0.594911 144 112 80 0.666265 0.488840 0.563140
-0.063715 -0.054547 0.623728 81 127 173 0.698907 0.436042 0.566918
0.126938 -0.048188 0.559547 86 127 168 0.133335 0.872478 0.470111
0.055262 -0.139067 0.498027 9 127 245 0.922461 0.378815 -0.074601
0.096539 -0.016168 0.385478 113 127 141 0.767665 -0.277827 0.577497
0.122515 0.087034 0.495275 201 127 53 -0.242827 0.419345 0.874749
-0.069506 0.008875 0.629932 135 127 119 0.871735 -0.001111 0.489976
-0.028735 0.130849 0.571850 238 127 16 0.721519 -0.198481 0.663337
-0.123551 0.013832 0.417164 139 127 115 0.501360 0.471338 -0.725588
-0.056838 0.121979 0.429420 231 127 23 -0.213693 0.393677 0.894066
0.091744 0.110464 0.547776 221 127 33 0.256532 -0.539820 0.801739
-0.106140 -0.105913 0.507820 37 127 217 0.685182 -0.637717 0.351913
-0.016283 0.034989 0.643644 157 127 97 0.712580 0.697543 -0.075260
0.016032 0.146323 0.485682 251 127 3 -0.645775 0.119954 0.754046
0.131786 -0.066175 0.533688 71 127 183 0.258649 0.775947 0.575333
-0.094531 0.108848 0.537626 220 127 34 0.756522 0.641686 0.126148
0.013762 -0.141857 0.456598 6 127 248 0.995530 0.081364 -0.047965
-0.039486 -0.115520 0.590926 29 127 225 0.274427 0.534069 0.799662
0.128385 -0.064822 0.536072 72 127 182 -0.057556 0.400323 0.914565
0.068636 0.097616 0.410625 210 127 44 -0.403968 0.754561 0.517154
-0.015506 -0.077343 0.628292 61 127 193 0.988755 0.065025 0.134665
-0.057516 0.087493 0.606399 201 127 53 0.052692 0.786102 -0.615846
-0.071526 -0.101819 0.582219 40 127 214 0.797590 -0.079828 0.597894
-0.130153 -0.070030 0.468466 67 127 187 -0.456910 0.503089 0.733576
0.071629 -0.083400 0.398315 56 127 198 0.865337 0.469498 0.175397
-0.106557 0.029249 0.400398 152 127 102 -0.153609 0.888797 0.431792
0.119304 0.078256 0.539577 194 127 60 0.105509 -0.570935 0.814188
0.114760 -0.052459 0.583764 82 127 172 -0.544222 0.167969 0.821955
-0.038555 -0.138531 0.541218 9 127 245 0.808685 -0.012682 0.588105
-0.065602 0.006823 0.635649 133 127 121 0.838782 0.397111 0.372488
-0.103053 -0.031457 0.396309 100 127 154 0.347322 0.724523 -0.595343
0.147930 0.024340 0.514611 148 127 106 -0.161062 0.921969 0.352182
-0.060342 -0.140019 0.499199 8 127 246 0.364172 -0.201361 0.909303
0.079113 0.088645 0.412437 202 127 52 0.745630 -0.006440 0.666329
0.123138 0.071475 0.452756 188 127 66 -0.473684 0.875274 0.097562
0.062392 0.077443 0.387890 193 127 61 0.762387 0.251641 0.596190
-0.073765 0.049308 0.380314 169 127 85 -0.331946 0.778800 0.532242
0.079421 0.078215 0.401987 193 127 61 0.765504 0.022385 0.643041
0.114182 -0.031896 0.409034 100 127 154 0.615820 0.587040 0.525500
-0.047238 -0.047235 0.633998 87 127 167 0.745947 0.541472 0.387777
0.083982 0.042261 0.383915 163 127 91 0.741591 0.211183 0.636745
-0.057709 0.137827 0.503342 244 127 10 -0.259821 -0.115204 0.958760
-0.084695 -0.099878 0.568026 42 127 212 0.737457 -0.161153 0.655887
-0.027359 0.113885 0.406402 224 127 30 0.921288 -0.059575 -0.384291
-0.138738 0.053812 0.513450 173 127 81 0.252248 0.451282 0.855988
0.113195 0.100747 0.505880 213 127 41 -0.054988 -0.035656 0.997850
0.075530 -0.027685 0.630117 103 127 151 0.837342 0.404669 -0.367561
0.133778 -0.014880 0.563717 114 127 140 -0.013102 0.969572 0.244455
-0.092214 0.095435 0.571962 208 127 46 0.551747 -0.104779 0.827404
-0.130719 0.078542 0.496524 194 127 60 0.002057 0.026590 0.999644
-0.094518 -0.055422 0.397693 80 127 174 -0.380353 0.910798 -0.160554
0.055005 -0.135455 0.466560 12 127 242 0.228302 -0.150571 0.961877
-0.053278 -0.122971 0.564700 22 127 232 0.541205 0.194588 0.818067
-0.015923 0.057006 0.639973 175 127 79 0.995810 -0.040282 0.082102
-0.072198 -0.131939 0.496319 15 127 239 0.278760 -0.189234 0.941532
0.076301 -0.127944 0.505241 18 127 236 -0.202714 -0.061236 0.977321
-0.028932 -0.091716 0.385302 49 127 205 0.707222 0.457511 -0.539000
-0.026915 0.098373 0.390210 211 127 43 0.460160 0.718668 0.521315
-0.086433 0.117761 0.474792 227 127 27 0.774087 0.504502 -0.382450
0.118794 0.002046 0.589844 129 127 125 0.259256 0.884397 -0.388109
-0.014915 0.148430 0.506770 253 127 1 0.991945 0.070500 0.105239
-0.137681 0.013964 0.555862 139 127 115 0.244897 -0.569068 0.784976
-0.002526 0.083083 0.374990 198 127 56 0.867389 0.434824 0.242001
-0.104432 0.090374 0.438823 204 127 50 0.133116 0.601889 0.787407
-0.122958 -0.085623 0.496241 54 127 200 -0.017966 -0.081359 0.996523
-0.070212 0.131348 0.521709 239 127 15 0.859781 0.501967 0.093836
0.098425 -0.048926 0.599010 85 127 169 0.210923 0.937279 0.277526
-0.062637 0.111655 0.581131 222 127 32 0.193198 -0.513567 0.836017
0.121259 -0.014477 0.408278 115 127 139 0.526625 0.608907 0.593210
-0.013120 -0.084209 0.623876 55 127 199 0.534175 0.662001 0.525749
-0.057466 0.117863 0.573708 227 127 27 0.811272 0.536067 -0.233390
0.085207 0.015255 0.377626 140 127 114 0.810673 0.066391 0.581723
0.072177 -0.125492 0.535232 20 127 234 -0.000987 0.279198 0.960233
-0.130816 0.075622 0.514232 191 127 63 0.299133 0.256838 0.918996
0.077041 0.109869 0.431653 220 127 34 0.829709 -0.272515 0.487153
-0.138805 0.049126 0.528231 169 127 85 0.086504 -0.192370 0.977502
-0.147406 0.016745 0.488706 141 127 113 0.150791 0.961272 -0.230693
0.037776 0.129712 0.558836 237 127 17 0.549365 -0.500873 0.668823
-0.047163 -0.057836 0.629380 78 127 176 0.935018 -0.288897 0.205623
-0.017530 -0.126163 0.424544 20 127 234 0.944063 0.075582 -0.320986
0.069610 -0.055543 0.380768 80 127 174 0.890073 -0.144686 0.432245
-0.086362 -0.092201 0.580875 49 127 205 0.791815 -0.230855 0.565451
-0.071287 0.123399 0.449077 232 127 22 0.861237 0.398886 -0.314898
-0.003045 0.136135 0.566941 243 127 11 0.073763 -0.453645 0.888125
0.057932 0.110937 0.576433 221 127 33 0.468777 -0.702817 0.535067
-0.131823 0.005188 0.576561 131 127 123 0.276233 0.896026 0.347611
-0.111630 -0.053870 0.416847 81 127 173 -0.653304 0.645078 0.396318
-0.026517 0.138162 0.547984 244 127 10 0.936851 0.079104 0.340666
-0.070162 0.111149 0.429769 221 127 33 0.539443 0.668347 0.512166
-0.055030 0.113089 0.418178 223 127 31 0.581484 0.639451 0.502971
0.024918 -0.107928 0.400665 35 127 219 0.016626 -0.681339 0.731779
-0.076714 -0.120761 0.448909 24 127 230 0.486891 -0.571195 0.660813
0.136485 0.056528 0.525514 175 127 79 -0.456624 0.772006 0.442156
0.042407 0.011613 0.355121 137 127 117 -0.164711 0.984731 0.056341
0.028067 -0.116282 0.587575 28 127 226 0.700024 0.540842 0.466323
-0.004394 0.078151 0.372464 193 127 61 0.985300 0.159861 0.060236
0.068252 0.127474 0.461338 235 127 19 0.637056 -0.172265 0.751321
0.146187 0.017260 0.472635 142 127 112 0.232685 -0.500819 0.833690
-0.074222 -0.122930 0.455730 23 127 231 0.796961 -0.551285 0.246857
0.095411 0.081205 0.415330 196 127 58 -0.139724 0.784458 0.604238
0.025941 0.084067 0.379149 198 127 56 0.845703 0.306776 0.436664
0.078795 -0.073972 0.606500 64 127 190 -0.089980 0.770945 0.630514
0.028336 -0.085703 0.618586 54 127 200 0.978419 0.204010 -0.032794
0.051893 -0.022872 0.640211 108 127 146 0.681177 0.722906 -0.115783
0.130522 0.031759 0.428131 154 127 100 0.493795 -0.165264 0.853730
0.125442 0.017302 0.583595 142 127 112 0.186918 0.861488 -0.472123
-0.074118 0.095357 0.407248 208 127 46 0.858703 0.461268 -0.223293
-0.103071 -0.111759 0.482440 32 127 222 -0.688380 0.664876 0.289952
0.082992 0.106279 0.429758 217 127 37 -0.199606 0.662341 0.722123
-0.003990 -0.057660 0.636370 78 127 176 -0.471016 0.812548 0.343379
0.110096 -0.050517 0.593872 84 127 170 -0.202131 0.749512 0.630377
0.119025 0.053905 0.573536 173 127 81 -0.071950 0.858584 -0.507600
-0.028148 -0.057072 0.363663 78 127 176 0.951559 -0.301158 -0.061970
-0.130114 0.072541 0.470555 189 127 65 0.309147 0.831520 0.461522
0.043126 -0.140770 0.532101 7 127 247 0.757444 0.400805 0.515396
0.027885 -0.121003 0.586320 24 127 230 0.788420 0.467470 0.399831
0.096475 0.054577 0.598996 173 127 81 -0.354247 0.925056 -0.137045
-0.040064 -0.130414 0.438766 16 127 238 0.938763 -0.338592 0.063879
0.109767 0.099081 0.528646 211 127 43 -0.605889 0.474688 0.638413
0.113571 -0.024569 0.404306 106 127 148 -0.040394 0.914172 -0.403308
0.100373 0.008791 0.388883 134 127 120 0.646699 0.498253 0.577516
-0.109580 -0.096473 0.484932 45 127 209 -0.449599 0.408892 0.794146
-0.060063 0.121308 0.430075 230 127 24 -0.302122 0.368074 0.879343
-0.057243 0.134152 0.465508 241 127 13 0.074178 0.228680 0.970671
-0.101740 0.076252 0.582843 192 127 62 0.469038 -0.238663 0.850319
-0.036840 0.139692 0.460482 246 127 8 -0.018335 0.244028 0.969595
0.109218 -0.048483 0.413244 86 127 168 0.691836 0.486029 0.533984
0.053819 0.101853 0.595850 214 127 40 0.920419 -0.320143 -0.224358
-0.024195 -0.108644 0.400577 35 127 219 0.986740 -0.087121 -0.136944
-0.137507 -0.034774 0.454875 97 127 157 -0.235448 -0.393408 0.888704
-0.051916 0.056024 0.627570 175 127 79 0.108108 0.917638 -0.382431
0.090937 0.090832 0.419960 204 127 50 -0.044894 0.663273 0.747030
-0.073708 -0.018381 0.369489 111 127 143 -0.501821 0.844690 0.186213
-0.105256 -0.085039 0.562388 55 127 199 0.318430 0.272325 0.907988
-0.013658 0.142658 0.453930 248 127 6 0.005605 0.325270 0.945605
-0.045695 -0.019876 0.639055 110 127 144 0.925044 -0.282432 0.254020
0.110141 0.090967 0.548824 204 127 50 -0.665289 0.732369 0.145004
0.143047 0.043445 0.507562 164 127 90 -0.273667 0.949194 0.155358
-0.014602 -0.007873 0.349515 120 127 134 -0.003120 0.995634 -0.093289
0.100133 0.023387 0.389982 147 127 107 0.719609 0.048483 0.692685
0.119756 -0.089796 0.503448 51 127 203 0.413148 0.543672 0.730567
0.063620 0.131308 0.462266 239 127 15 -0.539832 0.466615 0.700608
0.079231 0.042452 0.381073 163 127 91 0.678348 0.381387 0.628003
-0.045236 0.138613 0.466157 245 127 9 0.207700 0.273650 0.939136
0.081614 -0.095842 0.417314 46 127 208 0.692325 0.697713 -0.184070
0.007336 0.113371 0.593793 223 127 31 0.680102 0.431520 -0.592664
0.084383 -0.074205 0.402072 64 127 190 0.823086 0.252064 0.508915
0.081099 0.110404 0.558802 221 127 33 0.544283 -0.686395 0.482304
-0.141936 -0.011175 0.445471 118 127 136 -0.379686 0.197060 0.903884
0.102018 -0.005538 0.388613 122 127 132 0.692259 0.373024 0.617763
-0.123556 0.007799 0.416425 134 127 120 0.500470 0.472797 -0.725254
0.141639 0.013699 0.446283 139 127 115 0.320805 0.295446 0.899887
-0.075579 0.044100 0.378838 164 127 90 -0.497112 0.672578 0.548195
0.044390 -0.140026 0.519473 8 127 246 0.937404 0.345200 0.045950
-0.127270 -0.079028 0.506230 60 127 194 0.405764 -0.568547 0.715619
-0.066926 0.024228 0.370222 148 127 106 -0.169421 0.957106 0.235040
0.124117 -0.084673 0.487504 55 127 199 0.332957 0.320192 0.886914
-0.006243 -0.147879 0.504653 26 89 152 -0.453133 0.044471 0.890333
0.054882 0.014010 0.640126 139 127 115 -0.240128 0.970736 0.003060
0.065303 -0.054326 0.619918 81 127 173 0.312673 0.926202 0.210681
0.058640 0.011400 0.639248 137 127 117 -0.069837 0.996182 -0.052382
0.053684 0.113405 0.417876 223 127 31 0.610850 0.252781 0.750309
-0.077910 -0.065533 0.608709 71 127 183 -0.159451 0.899315 0.407195
-0.110945 -0.100412 0.500089 42 127 212 -0.367560 0.392009 0.843344
-0.079143 0.108485 0.431771 219 127 35 0.822096 0.389099 -0.415644
-0.065754 -0.133159 0.478347 14 127 240 0.247780 -0.284091 0.926228
-0.016181 -0.150616 0.485034 0 127 255 0.721106 -0.130282 0.680465
0.012836 0.094227 0.382688 207 127 47 0.933671 0.220761 0.281996
0.108385 0.032965 0.598511 155 127 99 0.418324 0.620883 -0.662955
0.073777 -0.100622 0.417583 41 127 213 0.353335 0.702054 -0.618284
-0.107429 0.097307 0.471487 210 127 44 0.347338 0.643064 0.682513
0.087656 0.066181 0.597212 183 127 71 0.621896 0.254964 -0.740432
0.101519 -0.044802 0.399491 89 127 165 0.694864 0.522116 0.494529
0.031621 -0.144635 0.525855 4 127 250 -0.124887 0.153691 0.980195
-0.028183 0.094449 0.386270 207 127 47 0.259775 0.776559 0.573998
0.005089 -0.071104 0.366948 67 127 187 0.929681 0.335522 -0.152048
0.054246 0.064494 0.374753 182 127 72 -0.306883 0.889019 0.339806
-0.048174 0.051735 0.370709 171 127 83 0.916525 0.273173 -0.292161
0.143046 0.010991 0.550678 136 127 118 -0.182915 0.916150 0.356666
-0.117906 0.007855 0.410311 134 127 120 0.545379 0.434197 -0.716962
-0.092105 0.036790 0.612569 158 127 96 0.045660 0.955509 -0.291407
-0.140127 -0.030836 0.541450 101 127 153 0.046671 0.757593 0.651057
0.093267 0.100806 0.439339 213 127 41 -0.565356 0.752315 0.338224
-0.138818 -0.038066 0.538753 95 127 159 -0.073373 0.792400 0.605574
0.046981 0.070815 0.377316 187 127 67 0.615994 0.569173 0.544603
-0.045683 -0.139906 0.516879 8 127 246 0.209270 0.035433 0.977216
0.120477 0.086210 0.475221 200 127 54 0.518107 -0.421840 0.744054
0.041020 0.109242 0.410771 220 127 34 0.514155 0.438562 0.737094
-0.064137 -0.117987 0.434501 27 127 227 0.901780 -0.323887 -0.286164
-0.066439 -0.021059 0.629655 109 127 145 0.745577 0.511035 0.427736
0.089370 0.068864 0.402928 186 127 68 0.794155 -0.101194 0.599231
-0.037751 -0.145581 0.493050 3 127 251 0.959076 -0.244955 -0.142026
0.111169 0.101520 0.496217 213 127 41 0.207052 -0.115903 0.971440
-0.035968 0.119526 0.422406 229 127 25 0.776003 0.506019 0.376516
-0.113210 0.101294 0.484759 213 127 41 0.316510 0.556164 0.768442
-0.039695 -0.063021 0.629318 73 127 181 0.564955 0.681321 0.465433
0.059597 -0.105960 0.588535 37 127 217 0.899972 0.237424 -0.365623
0.101385 -0.113189 0.494129 31 127 223 -0.147585 -0.330413 0.932226
0.074983 0.128891 0.495007 237 127 17 0.661672 -0.366517 0.654107
-0.041944 0.111627 0.407877 222 127 32 0.942873 0.323732 -0.078668
0.093723 -0.115138 0.476069 29 127 225 0.781743 0.529511 0.329388
-0.016365 -0.138706 0.556687 9 127 245 0.822265 0.141394 0.551261
-0.132688 0.073261 0.481651 189 127 65 0.418851 0.887969 0.189931
-0.005262 -0.073859 0.631957 64 127 190 0.943175 0.274047 0.187934
-0.004626 0.010887 0.350947 136 127 118 0.993833 0.110142 -0.012811
0.054629 0.133251 0.536671 240 127 14 -0.133803 -0.204942 0.969585
0.032454 -0.142399 0.463865 6 127 248 0.711699 -0.036883 0.701516
-0.066551 -0.090745 0.602013 50 127 204 0.234077 0.624571 0.745063
-0.077203 -0.068444 0.393963 69 127 185 0.493054 0.548264 -0.675503
0.075514 0.132042 0.488553 239 127 15 0.858409 -0.414647 0.301997
0.128514 0.059898 0.454701 178 127 76 0.451312 -0.437307 0.777869
-0.091971 0.004750 0.621870 131 127 123 0.165624 0.979590 0.113894
0.034719 -0.072746 0.374449 65 127 189 0.858529 0.509360 -0.059001
0.064515 0.125944 0.453101 234 127 20 0.754991 -0.170654 0.633139
0.046918 -0.139791 0.474335 8 127 246 0.419531 -0.012798 0.907651
-0.117657 0.017325 0.589604 142 127 112 0.579759 0.549213 0.601867
-0.024178 -0.035240 0.355335 97 127 157 0.794191 0.553262 -0.251320
0.000218 0.147962 0.516933 253 127 1 0.995124 -0.042595 -0.088961
-0.067875 -0.037601 0.626862 95 127 159 0.525349 0.710530 0.468141
0.042026 0.082592 0.379087 197 127 57 0.707860 0.500038 0.498895
-0.071304 -0.021577 0.369237 109 127 145 0.817800 0.287045 -0.498806
0.147057 -0.038361 0.489249 94 127 160 -0.018161 0.165854 0.985983
0.115285 -0.086984 0.534742 53 127 201 0.600262 0.799721 -0.011449
-0.120798 0.073524 0.449026 189 127 65 0.380245 0.847689 0.369916
0.028866 0.007259 0.645538 133 127 121 -0.330312 0.943819 0.009984
-0.053298 -0.014333 0.640981 115 127 139 -0.124269 0.987419 0.097782
-0.111271 0.026989 0.601157 150 127 104 0.660489 0.184288 0.727868
0.138164 0.049259 0.514172 169 127 85 -0.364908 0.834124 0.413618
-0.119428 -0.069335 0.554937 68 127 186 0.605084 -0.569081 0.556794
0.128587 -0.035134 0.569351 97 127 157 0.317533 0.936023 -0.151770
-0.092048 0.100595 0.562978 213 127 41 0.289744 -0.319018 0.902372
0.056484 -0.128341 0.546355 18 127 236 0.268353 0.398076 0.877224
-0.077090 0.002700 0.369804 129 127 125 -0.460520 0.851147 0.251935
-0.105058 0.110377 0.488639 221 127 33 0.172332 0.326201 0.929459
-0.097971 0.097778 0.443607 210 127 44 -0.264383 0.265766 0.927076
0.119223 0.086714 0.483201 201 127 53 -0.241064 0.491216 0.837015
0.074154 -0.092424 0.590018 48 127 206 0.649827 0.732061 0.204482
-0.105421 -0.066128 0.415619 71 127 183 -0.385672 0.903010 -0.189287
-0.031259 -0.132252 0.563913 15 127 239 -0.762079 0.434223 0.480297
0.129458 -0.068715 0.529872 69 127 185 0.470359 0.869272 0.152080
-0.099401 -0.018335 0.390160 111 127 143 0.518281 0.635492 -0.572306
-0.025547 -0.134387 0.567871 33 89 145 -0.494237 0.459042 0.738248
-0.023556 -0.097582 0.612642 44 127 210 0.981531 -0.189110 0.028893
-0.051420 0.051522 0.367667 171 127 83 0.791635 0.602429 -0.101948
-0.106384 0.101772 0.531783 214 127 40 0.236694 -0.007503 0.971555
-0.047821 0.004862 0.639607 131 127 123 -0.324948 0.936253 -0.133566
0.040002 -0.121789 0.422068 23 127 231 0.922501 0.041656 0.383741
0.023257 -0.048939 0.360363 85 127 169 0.865462 0.500939 0.005980
-0.055412 -0.098683 0.403191 43 127 211 0.671401 -0.663690 0.329751
0.009854 0.139930 0.450701 246 127 8 0.781330 0.112187 0.613953
-0.097797 -0.022701 0.611733 108 127 146 0.283026 0.840416 0.462165
-0.072004 -0.082940 0.396610 57 127 197 0.872549 -0.407704 -0.269140
-0.046776 -0.077378 0.380429 61 127 193 0.944255 -0.253542 -0.209996
-0.001779 -0.150842 0.520610 0 127 255 0.468897 0.094988 0.878131
-0.067125 0.086500 0.599374 201 127 53 0.683187 0.717067 -0.138099
-0.090679 -0.110670 0.458831 33 127 221 0.579542 -0.669763 0.464272
0.086115 0.035672 0.617390 157 127 97 -0.032301 0.963645 -0.265227
0.005878 0.132979 0.428328 240 127 14 -0.619272 0.396628 0.677634
0.035534 0.063511 0.370541 181 127 73 0.643000 0.606877 0.467174
0.015522 -0.142074 0.550604 6 127 248 0.871728 0.247675 0.422787
0.034061 -0.112388 0.405292 31 127 223 0.389791 -0.531891 0.751768
-0.137581 -0.009878 0.443888 119 127 135 -0.392135 -0.064774 0.917624
-0.032889 0.114700 0.411520 224 127 30 0.857870 0.444507 0.257821
-0.096081 0.085994 0.577077 200 127 54 0.593481 0.795024 -0.125369
0.002202 0.151460 0.500943 0 127 255 0.991988 -0.020168 -0.124712
0.037371 -0.029314 0.360717 102 127 152 0.898023 0.419061 0.133953
-0.070441 -0.122466 0.551904 23 127 231 0.000428 0.389628 0.920972
-0.087263 -0.121199 0.469582 24 127 230 -0.656196 0.228119 0.719283
-0.123026 0.082864 0.530399 197 127 57 0.500453 0.843726 -0.194095
0.043972 0.135233 0.453568 242 127 12 0.921077 -0.221862 0.319992
0.017902 0.099030 0.390274 211 127 43 0.938845 0.129772 0.318952
-0.053902 0.087057 0.611881 201 127 53 0.886299 0.001534 0.463111
-0.131337 0.035495 0.565042 157 127 97 0.492025 0.280926 0.824010
0.141043 0.015923 0.543667 141 127 113 -0.111981 0.991505 -0.066169
0.081907 0.076358 0.601177 192 127 62 0.513193 0.398173 -0.760323
0.072609 -0.091445 0.405965 49 127 205 0.566755 0.763615 -0.309323
0.076638 -0.048412 0.379970 86 127 168 0.623135 0.781673 -0.026282
0.046519 0.076094 0.382501 192 127 62 -0.243918 0.867445 0.433639
-0.062245 0.129130 0.461285 237 127 17 0.895120 0.444925 -0.028323
-0.125492 0.045850 0.565288 166 127 88 0.261656 -0.462898 0.846913
0.076497 0.043922 0.378301 164 127 90 0.432294 0.714667 0.549884
0.120517 0.038793 0.416135 160 127 94 0.067261 0.865100 0.497069
-0.047282 -0.127182 0.436557 19 127 235 0.918538 -0.213366 -0.332810
-0.019624 -0.109331 0.599624 34 127 220 -0.363208 0.684344 0.632260
0.051320 -0.077213 0.378333 61 127 193 0.758244 -0.344573 0.553477
-0.051883 0.140124 0.527565 246 127 8 0.890718 0.219613 0.397983
0.085643 0.118733 0.470141 228 127 26 -0.374413 0.499666 0.781120
0.111617 0.090027 0.452323 204 127 50 -0.174771 0.594400 0.784949
0.118475 -0.039837 0.414035 93 127 161 0.621132 0.080142 0.779598
-0.080639 0.093744 0.412749 207 127 47 0.824706 0.438336 -0.357382
-0.067424 0.107444 0.577751 218 127 36 0.475357 0.689756 -0.546144
0.128666 0.054656 0.444081 173 127 81 -0.085716 0.805422 0.586471
-0.037014 0.139126 0.537720 245 127 9 0.903503 0.075441 0.421890
-0.046605 0.078522 0.382303 194 127 60 0.573241 0.757040 0.313504
-0.045383 0.131088 0.555485 238 127 16 0.802911 0.029564 0.595366
0.135938 -0.040027 0.454102 93 127 161 0.433265 0.676006 0.596068
0.070783 0.016076 0.368847 141 127 113 0.850297 0.275300 0.448559
-0.145869 0.036570 0.506034 158 127 96 0.255992 0.843007 0.473083
-0.097817 0.033360 0.608298 155 127 99 0.660362 0.642117 0.389368
